-9.562378279419068150e-01 1.129808216712030911e+00 -3.237555520792852470e-01
-9.430562785225069522e-01 1.121719437466329072e+00 -3.272622717150798222e-01
-9.447556229804247030e-01 1.122908508888089019e+00 -3.275455000808860651e-01
-9.423603007430815248e-01 1.128803524582179918e+00 -3.214405032941286544e-01
-9.564830428774854232e-01 1.124825626291077629e+00 -3.247024969958166585e-01
-9.533120098838417933e-01 1.127315209996401890e+00 -3.237492207970672498e-01
-9.542745899790213704e-01 1.124098172258999329e+00 -3.264089062381605455e-01
-9.498621559718708474e-01 1.120650557459032415e+00 -3.254598637626828772e-01
-9.452511616301197961e-01 1.120796794636115923e+00 -3.256236856900731613e-01
-9.543680407340354721e-01 1.123144439229927460e+00 -3.218941358045090961e-01
-9.499905574636819949e-01 1.118380535414690291e+00 -3.251735791376759166e-01
-9.521025483875402706e-01 1.110560552557137370e+00 -3.252056022998698892e-01
-1.063422961006043943e+00 8.826751933680069273e-01 -3.855831903283024609e-01
-1.063546630926045067e+00 8.938865996894242993e-01 -3.875446214790051469e-01
-1.070703331141251491e+00 8.683483546463162117e-01 -3.908000217036068924e-01
-1.069212951167676673e+00 8.638364522706410975e-01 -3.965882428541573912e-01
-1.059907723656284828e+00 8.828168554054948158e-01 -3.834706869280861685e-01
-1.048921350101958305e+00 8.783354215212150207e-01 -3.756176913941555173e-01
-1.057606165038384560e+00 8.859558620198295653e-01 -3.806030471264763571e-01
-1.055573713461295471e+00 8.709837846492577418e-01 -3.961058340548443968e-01
-1.059092727905073472e+00 8.836694425416665721e-01 -3.878163140748859816e-01
-1.061208552021392748e+00 8.777007683869313404e-01 -3.845165177645344934e-01
-1.053137898805587502e+00 8.734847818741393599e-01 -3.774928029272659469e-01
-1.058944863269965397e+00 8.781972158715993793e-01 -3.794460931685923466e-01
-1.071413235811287334e+00 8.342358741460589311e-01 -3.420087513127480494e-01
-1.087759014026215443e+00 7.978311075574605615e-01 -3.377760929060158457e-01
-1.088553651069755990e+00 8.573198127578066652e-01 -3.921497075891537953e-01
-1.066602565600327734e+00 8.596973234382392359e-01 -3.854048270413465427e-01
-1.065239279361337443e+00 8.647903944121847486e-01 -3.829714147159588578e-01
-1.058879013350509712e+00 8.596294181844710280e-01 -3.806343784078868309e-01
-1.104204722265663241e+00 8.075829486386946199e-01 -4.143228037483184800e-01
-1.094890740180218591e+00 8.137187074785863228e-01 -4.137867873583455647e-01
-1.095045798686490102e+00 8.079561597096008851e-01 -4.165644926613121246e-01
-1.082768733091978630e+00 8.263775915350479728e-01 -4.096771047790642717e-01
-1.070134861299960161e+00 8.327849456530932448e-01 -3.949477370158053224e-01
-1.098028678712390516e+00 8.006418687165193226e-01 -4.247790611014869988e-01
-1.091333817465657940e+00 8.065549581623890907e-01 -4.188094759000127176e-01
-1.081248437166500764e+00 8.454165807459438353e-01 -3.913278022793125199e-01
-1.088511558337774243e+00 8.212924266210873681e-01 -4.099828706436398074e-01
-1.098669244903948794e+00 8.083847566314547040e-01 -4.201508326749587852e-01
-1.094355585977051737e+00 8.074582661317638577e-01 -4.160057602226902573e-01
-1.093792227327134547e+00 8.081157093083398690e-01 -4.176872722124502779e-01
-1.096631611157887098e+00 8.087921720684898563e-01 -4.183170449833574223e-01
-1.095238680813207077e+00 8.046487982529139105e-01 -4.223894170720274288e-01
-1.094923284515034290e+00 8.000589274879125190e-01 -4.179562423248062153e-01
-1.122741439405277486e+00 5.981212141409877336e-01 -5.116529329083183697e-01
-9.489288516227194492e-01 1.130314796500228036e+00 -3.220434935830924217e-01
-9.439044258389803765e-01 1.122818120826505561e+00 -3.286467571330209947e-01
-9.567716502594850736e-01 1.130138164021114333e+00 -3.210471016098077612e-01
-9.446682976122718900e-01 1.124465232206124821e+00 -3.264606117096073845e-01
-9.541713977999440877e-01 1.128887040886234150e+00 -3.221645664870514958e-01
-9.546679080183535504e-01 1.125779719637023835e+00 -3.244437187036164905e-01
-9.546218196296062386e-01 1.121959408504542344e+00 -3.250625629350447632e-01
-9.485321170073123254e-01 1.127666724844097690e+00 -3.220273307975928812e-01
-9.452658445427432055e-01 1.120210867924837261e+00 -3.264105340983242676e-01
-9.553957867096050105e-01 1.123804745638807612e+00 -3.215221601057429157e-01
-9.508360667458978233e-01 1.117577234680594334e+00 -3.259483440621817607e-01
-9.656979410396414609e-01 1.118486751681818880e+00 -3.157515888520767700e-01
-9.463731626394406016e-01 1.118383469423523069e+00 -3.233796000264431147e-01
-1.061724668142574934e+00 8.820969109239844563e-01 -3.795014729874493509e-01
-1.061901929165521841e+00 8.884538299288482488e-01 -3.835792051917623624e-01
-1.075950175384046581e+00 8.639950914258499592e-01 -3.911102480980580554e-01
-1.072605266978799765e+00 8.632718164260894111e-01 -3.965002362619142184e-01
-1.073879961914904868e+00 8.635864116626400522e-01 -3.911038605163285053e-01
-1.049944235821119731e+00 8.806055187656189887e-01 -3.718281519661530976e-01
-1.057571396872861058e+00 8.826425625732270408e-01 -3.889029573823689079e-01
-1.069581723424233299e+00 8.622283339327508900e-01 -3.972177301061128873e-01
-1.056860785845024298e+00 8.866892445915482979e-01 -3.857263129359768672e-01
-1.059630608814228436e+00 8.775630839099374247e-01 -3.838516586353284410e-01
-1.056527171225969619e+00 8.796126688358922863e-01 -3.736546014185576636e-01
-1.055335699836458474e+00 8.726676210045678506e-01 -3.775936059963548308e-01
-1.067413648535483484e+00 8.251014135089516088e-01 -3.413319957951378991e-01
-1.065798814470138911e+00 8.815951294627322188e-01 -3.843289705192151073e-01
-1.070170585752902026e+00 8.626864977495359854e-01 -3.836499452013404921e-01
-1.063739826319330062e+00 8.648908681291308520e-01 -3.839613705491852214e-01
-1.056766495624078317e+00 8.554234489633485428e-01 -3.809492298072153504e-01
-1.102853762402596693e+00 8.080654772755394566e-01 -4.168932496378647268e-01
-1.093623216193332803e+00 8.147748670133779791e-01 -4.132418241717017993e-01
-1.095802174581952171e+00 8.078870432120547340e-01 -4.174239191827938122e-01
-1.084081158352195873e+00 8.292752791400060941e-01 -4.051321642414290047e-01
-1.070994883791986041e+00 8.315389827705899073e-01 -3.966251528139576044e-01
-1.099215681529238875e+00 8.008300570725270795e-01 -4.241764793861216853e-01
-1.097659154455215003e+00 7.978108912071263381e-01 -4.229664002037502590e-01
-1.092317723815828812e+00 8.038916695525540890e-01 -4.171083137721492973e-01
-1.078710057870200467e+00 8.462553180011941345e-01 -3.915253339414083711e-01
-1.088838742145117333e+00 8.159587074062322198e-01 -4.139088189625592107e-01
-1.096851619997847083e+00 8.109960244925781270e-01 -4.139931202426608281e-01
-1.088793747575452331e+00 8.181498586605051582e-01 -4.144625777414712720e-01
-1.095713205268060930e+00 8.066846915397886120e-01 -4.173868741041657504e-01
-1.095063521772739579e+00 8.090111417803214078e-01 -4.176051457020535929e-01
-1.097251153503259191e+00 8.013036292613562317e-01 -4.196379055189688456e-01
-1.129471335033795709e+00 5.969215648452782519e-01 -5.149739220639257820e-01
-9.583981141953670235e-01 1.131618577372579759e+00 -3.226086441660359072e-01
-9.430149578981128489e-01 1.123803484529747765e+00 -3.265347340380129748e-01
-9.433517898331852392e-01 1.122574623830309148e+00 -3.302608834330768572e-01
-9.429327284400379483e-01 1.123924782631753327e+00 -3.267174082589994755e-01
-9.537171733404131713e-01 1.129619873934505581e+00 -3.202212810710745594e-01
-9.531068480293675149e-01 1.122797917344630969e+00 -3.277083761764815750e-01
-9.483427447530038412e-01 1.123248030331258196e+00 -3.255659384767536357e-01
-9.472335478611769721e-01 1.120584156206502424e+00 -3.239354081075771497e-01
-9.565074993853213137e-01 1.124962726861708395e+00 -3.176972420646555495e-01
-9.505960828392248096e-01 1.117899074860008390e+00 -3.216605539565828842e-01
-9.669012707148518793e-01 1.117362537297413860e+00 -3.141059058714944507e-01
-9.493597326961866756e-01 1.118474912698809609e+00 -3.248695038670056379e-01
-1.065948621840536292e+00 8.904500280386562494e-01 -3.799853771420041437e-01
-1.054936464718457811e+00 8.887089075335095067e-01 -3.789698905861537126e-01
-1.059585985218131077e+00 8.863484630446679668e-01 -3.855859447819071639e-01
-1.075294755772772781e+00 8.676640807310722625e-01 -3.898867442971473141e-01
-1.073476529266175650e+00 8.593944385000996666e-01 -3.971777204560600905e-01
-1.058675303219155817e+00 8.834919617495546884e-01 -3.842854150052803508e-01
-1.047532108983844967e+00 8.767003711055362247e-01 -3.758882547826895570e-01
-1.059059909713347958e+00 8.868759733827178415e-01 -3.856287346224842039e-01
-1.055934451576477917e+00 8.694196490983815417e-01 -3.960050217365501113e-01
-1.056931593439150108e+00 8.857686967063755912e-01 -3.841289884208771710e-01
-1.060603869932105647e+00 8.781596391647261690e-01 -3.873602988887471232e-01
-1.061444324322459165e+00 8.746501713084873231e-01 -3.874461632845741521e-01
-1.052928886868799152e+00 8.728400623871831465e-01 -3.744610203413172300e-01
-1.070159974099245570e+00 8.253502187448125138e-01 -3.411308842883835069e-01
-1.069419935517768927e+00 8.825358343826824603e-01 -3.784222664433084526e-01
-1.069559547850895465e+00 8.616533711492155856e-01 -3.866925778341901432e-01
-1.064121949602921502e+00 8.654821255998784713e-01 -3.797766867156409654e-01
-1.054177481351330048e+00 8.590069514816111029e-01 -3.818537027743405532e-01
-1.102348138097539065e+00 8.034809597898117106e-01 -4.165107185849536431e-01
-1.095355002038387759e+00 8.141486427202584419e-01 -4.145296545881403949e-01
-1.095297158311619778e+00 8.077051024932764278e-01 -4.170879011778031997e-01
-1.084673411520020059e+00 8.313766149791563809e-01 -4.046043386261141128e-01
-1.069683967358679544e+00 8.299197702118010778e-01 -3.954410542476288204e-01
-1.096979590396254922e+00 7.995515048155991122e-01 -4.216702213740211591e-01
-1.092966860401608953e+00 8.034672677485924508e-01 -4.211218416113025054e-01
-1.084262016511794213e+00 8.403885067538535703e-01 -3.944688469359668992e-01
-1.090321597286828315e+00 8.238483472366426863e-01 -4.112273697388416638e-01
-1.098751767119484191e+00 8.054954849992007615e-01 -4.161493432799416303e-01
-1.093882322631257731e+00 8.088629292946596383e-01 -4.155026710042117322e-01
-1.095744253644425514e+00 8.071476665519784488e-01 -4.173068355013704323e-01
-1.095427519026434204e+00 8.075614904819904405e-01 -4.196049879988192344e-01
-1.095990169911063017e+00 8.019585373513534732e-01 -4.202656997641828762e-01
-1.136887306161928679e+00 6.007325334759503477e-01 -5.094983409483163639e-01
-9.604449907126747510e-01 1.129464937678602343e+00 -3.239499494671428392e-01
-9.450490882059960907e-01 1.129465220784717783e+00 -3.227949022530746115e-01
-9.554502975052866498e-01 1.129834185263892454e+00 -3.253109177748129133e-01
-9.508346190441711032e-01 1.130310086643943945e+00 -3.189426194322382280e-01
-9.464727130443965075e-01 1.127720978270583485e+00 -3.230191415991913728e-01
-9.431079582570343067e-01 1.123884993354074435e+00 -3.259130201400509685e-01
-9.564200388983405965e-01 1.124732355694500585e+00 -3.224538430289602964e-01
-9.531374813979039962e-01 1.124473030492759040e+00 -3.235112894097311731e-01
-9.561576123977894026e-01 1.127358422284385542e+00 -3.195403593896065653e-01
-9.512922407770871835e-01 1.121653139161477242e+00 -3.260033374251056215e-01
-9.448564344944404558e-01 1.121118634815529980e+00 -3.262452580349774478e-01
-9.553273586746575674e-01 1.125308862693211065e+00 -3.209793041293901861e-01
-9.491222259680235362e-01 1.119588034470873295e+00 -3.254603141587756321e-01
-9.504432634449573314e-01 1.114486874061390687e+00 -3.221801501918604149e-01
-1.059806915359384094e+00 8.832480869434216064e-01 -3.799903115931255737e-01
-1.054745175063640072e+00 8.904970871918391762e-01 -3.732528505166675115e-01
-1.057184027279068017e+00 8.938634782842918014e-01 -3.784975811149417502e-01
-1.048173425567464845e+00 8.909332825370611664e-01 -3.756338292470142171e-01
-1.061143505978534574e+00 8.923462643549342488e-01 -3.872717305078061112e-01
-1.076385175973204822e+00 8.638193549132492377e-01 -3.949091557647895212e-01
-1.066227673586860991e+00 8.725671392448346442e-01 -3.953051978962041635e-01
-1.074520204786410860e+00 8.641517375783484001e-01 -3.897908903572668837e-01
-1.049727051608084327e+00 8.775828337786043543e-01 -3.729955118834066274e-01
-1.058128209498137684e+00 8.858859054531426080e-01 -3.865918286517767144e-01
-1.054388162166497667e+00 8.703216219650524721e-01 -3.960421166804598547e-01
-1.057979947348263838e+00 8.846766954950161521e-01 -3.827321113798995977e-01
-1.060426087334397804e+00 8.803011418904223007e-01 -3.886812185388456298e-01
-1.058127068226609735e+00 8.787425450050686537e-01 -3.760238819146741185e-01
-1.056723291378881990e+00 8.750805360350051298e-01 -3.732556204526378818e-01
-1.075065605500687527e+00 7.930923551468882504e-01 -3.292084010606709521e-01
-1.084796417910063093e+00 7.985406422592774556e-01 -3.393433394070470843e-01
-1.069494315215370417e+00 8.774959202011647363e-01 -3.757795806397406513e-01
-1.066173231959150813e+00 8.644077266318884734e-01 -3.828643975128768195e-01
-1.064160855782547044e+00 8.650321139523723390e-01 -3.805213243640057086e-01
-1.058965778136382818e+00 8.601812724313337988e-01 -3.800345416958509914e-01
-1.102463976755477582e+00 8.033109738701810221e-01 -4.133551534799806970e-01
-1.093969902151491480e+00 8.177316787568535972e-01 -4.122020172321916864e-01
-1.096866299693355584e+00 8.071120788264221080e-01 -4.174866786612025371e-01
-1.084674202930297371e+00 8.265830171929479109e-01 -4.069578850172977935e-01
-1.060635233987874626e+00 8.292760190764441042e-01 -3.932214170490473393e-01
-1.092377401298117112e+00 8.053437465555559616e-01 -4.217320575404397975e-01
-1.081646609832289885e+00 8.431861356496941351e-01 -3.982508615321055934e-01
-1.086956729900443008e+00 8.186510916036584540e-01 -4.117056871722192812e-01
-1.101094167815929836e+00 8.086597105776143213e-01 -4.208314487305067075e-01
-1.094812869912898279e+00 8.083284957252412362e-01 -4.199744157425464586e-01
-1.093601397719754509e+00 8.083535248795379324e-01 -4.174724879671661837e-01
-1.096114521055154389e+00 8.098312680255964624e-01 -4.207228324956269194e-01
-1.095523067340394618e+00 8.015008191049889374e-01 -4.207351411774185590e-01
-1.109577973389001437e+00 5.985861258563764942e-01 -4.935142726183550099e-01
-1.070716511661194081e+00 8.659078383781814159e-01 -3.919424851725553660e-01
-1.058652764513968503e+00 8.836936555541147209e-01 -3.836929093944675406e-01
-9.438713538973133588e-01 1.124695217319539031e+00 -3.259176849567257950e-01
-1.095543499237430440e+00 8.003465761696576530e-01 -4.220526880846333095e-01
-9.484213324369573650e-01 1.126489646826864588e+00 -3.245380959877357530e-01
-1.096636694199505158e+00 8.074455971330977144e-01 -4.177782811772188243e-01
-1.088488874460274758e+00 8.201121958312050930e-01 -4.113028303870657210e-01
-1.079463250430421351e+00 8.436733805770528782e-01 -3.943131675265104663e-01
-1.060385864550479562e+00 8.766371009101295853e-01 -3.838436809945357520e-01
-1.086657850270414061e+00 8.283347877560606198e-01 -4.064823166086433681e-01
-1.080829181137898942e+00 8.579297874033229299e-01 -3.954050563399163498e-01
-1.067767643778804398e+00 8.925592180618129312e-01 -3.799152542906881758e-01
-1.081633752632399581e+00 7.997225588173927369e-01 -3.469294283565239057e-01
-1.094892464553830935e+00 8.177610445821003049e-01 -4.140065742173740237e-01
-9.517759340095434117e-01 1.127141871842994858e+00 -3.215736854187526417e-01
-9.492327853403320637e-01 1.115864983157504486e+00 -3.223885162928228909e-01
-1.058143465861500543e+00 8.582117803969890879e-01 -3.822511136876307614e-01
-9.523780299405514294e-01 1.121988156643719092e+00 -3.269910689249498903e-01
-1.097883702644366632e+00 8.037373831538699998e-01 -4.164018514151078265e-01
-1.102681839779767081e+00 8.057591533061221334e-01 -4.179020950631137099e-01
-1.092173568112116744e+00 8.090167845999405305e-01 -4.191379143821853948e-01
-9.541841504435987220e-01 1.123415809310034597e+00 -3.215786397757728343e-01
-1.068898984072819580e+00 8.604092195024281020e-01 -3.861573524523551071e-01
-1.074331364964626223e+00 8.605971907031768620e-01 -3.938275166796084692e-01
-9.507536506951557165e-01 1.113637298345880211e+00 -3.265837435671332667e-01
-1.095706124398059922e+00 8.054215878688417707e-01 -4.173050435683443027e-01
-1.095869257862851276e+00 8.128274122164280691e-01 -4.198550961662341208e-01
-1.060084878112298901e+00 8.863962203117945471e-01 -3.807624923700493325e-01
-1.058625492628413545e+00 8.867047110727311887e-01 -3.871454877001253014e-01
-1.061696638224310485e+00 8.674836021910379280e-01 -3.742372153057185180e-01
-1.062249079996790524e+00 8.772750379144965693e-01 -3.866325790425463316e-01
-9.483942700660135117e-01 1.121442276579315056e+00 -3.235446315890538882e-01
-1.064371124002722713e+00 8.864935358272099108e-01 -3.759767511806835771e-01
-1.094216510097842709e+00 8.088343420112302784e-01 -4.203592373813006544e-01
-1.063410042278830403e+00 8.880270810384622848e-01 -3.817240057905538220e-01
-9.539019644230354311e-01 1.131040706317131272e+00 -3.209642608998926061e-01
-1.055214680819174689e+00 8.752508911185761242e-01 -3.791591470243241280e-01
-1.054085142109530526e+00 8.889879643065763393e-01 -3.753565565652557945e-01
-1.046543116374941018e+00 8.783178946789774733e-01 -3.694464389293194984e-01
-1.079770029686205612e+00 8.114529641971253149e-01 -3.488264484424313805e-01
-1.056452792332646995e+00 8.259557698572750351e-01 -3.948725932534036809e-01
-1.096173899345752600e+00 7.989941139139105086e-01 -4.265531391396504834e-01
-1.054664853354729370e+00 8.707313891131147621e-01 -3.961385480924735081e-01
